# .PCD v0.7 - Point Cloud Data file format
VERSION 0.7
FIELDS x y z intensity
SIZE 4 4 4 4
TYPE F F F F
COUNT 1 1 1 1
WIDTH 1291
HEIGHT 1
VIEWPOINT 0 0 0 1 0 0 0
POINTS 1291
DATA ascii
4.0331259 -0.50124979 0.160035 1878
7.7884398 -1.0156068 0.23678166 1196
7.9455118 -1.0856901 0.24012199 1747
7.9446387 -1.1352702 0.24024346 1761
7.9454346 -1.1851753 0.24040541 1768
7.9469042 -1.2352864 0.24058762 1795
7.9460845 -1.285141 0.24072933 1793
7.9508667 -1.3360254 0.24099252 1826
7.9425192 -1.3847857 0.24099252 1796
7.9319053 -1.4331387 0.24095201 1785
7.9278765 -1.4826994 0.24105322 1781
7.9274645 -1.5330234 0.24123544 1770
7.9237909 -1.5828109 0.24135691 1759
7.9188261 -1.6324092 0.24145812 1739
7.9135513 -1.6820061 0.24155936 1786
7.1168528 -1.558472 0.22526258 1510
7.5353355 -1.698571 0.23414987 1595
7.9182611 -1.8359606 0.24232864 1771
7.9155998 -1.8865968 0.24251083 1763
7.9184422 -1.9386951 0.24281451 1752
7.9093065 -1.9879761 0.24287525 1760
7.7439919 -1.9970415 0.23967662 1146
7.5170064 -1.9878041 0.23518234 1163
7.1447167 -1.9363866 0.22763118 1236
7.0883842 -1.9678925 0.22669992 1472
7.0300126 -1.998234 0.22572818 1243
6.8496127 -1.9924855 0.22218543 1243
6.7222605 -2.0002754 0.2197561 1262
6.5443783 -1.9911622 0.21625379 1285
6.4461107 -2.0045729 0.21443179 1309
6.2736015 -1.9932512 0.21103072 1361
6.142375 -1.9931527 0.20850018 1365
6.0018983 -1.9883778 0.20576718 1331
5.8948679 -1.9931583 0.20374274 1356
5.769104 -1.9901839 0.20131341 1316
5.6747284 -1.9966884 0.19955215 1280
5.554141 -1.9926614 0.19722402 1279
5.4141016 -1.9800234 0.19447079 1229
5.3203397 -1.9828442 0.19270952 1194
5.208055 -1.9774954 0.19054337 1195
5.1146908 -1.9780539 0.1887821 1208
5.0298924 -1.9808381 0.18720303 1206
4.9294777 -1.976335 0.18527982 1244
4.8570838 -1.9820029 0.18396392 1296
4.7589526 -1.9761268 0.18208119 1286
4.6748948 -1.9749559 0.18050212 1295
4.6094065 -1.9807197 0.17932795 1337
4.5366964 -1.982554 0.17799181 1326
4.4595704 -1.9815423 0.17655446 1306
4.3944764 -1.9850082 0.17538029 1301
4.3167877 -1.9819131 0.17392269 1319
4.2293377 -1.9732926 0.1722424 1303
4.1737814 -1.9786578 0.17127067 1293
4.111114 -1.9799474 0.17013697 1315
4.0458946 -1.979226 0.16894254 1333
3.9906909 -1.9826709 0.16797082 1350
3.9293501 -1.9823626 0.16685738 1381
3.855706 -1.9749987 0.1654605 1344
3.7964966 -1.9741839 0.16438755 1365
3.7542458 -1.9815811 0.16369924 1452
3.6970642 -1.9805123 0.16266677 1438
3.6444311 -1.9812036 0.16173553 1450
3.6068149 -1.9895302 0.16114844 1451
3.49332 -1.9550099 0.1588001 944
3.4621282 -1.9655532 0.1583547 253
3.4084091 -1.9628208 0.15738298 203
3.3021853 -1.9287581 0.15517634 300
3.324702 -1.9693563 0.1559861 1419
3.2919831 -1.9773691 0.15550025 1454
3.2430651 -1.9751781 0.15462974 1432
3.1942992 -1.9724622 0.15375923 1441
3.1490805 -1.9713442 0.15296969 1461
3.1090631 -1.972959 0.15230162 1452
3.0691452 -1.9741576 0.15163356 1434
3.029331 -1.9749414 0.15096548 1474
2.9887893 -1.9747605 0.15027718 1482
2.9533503 -1.9774934 0.14971033 1522
2.9138541 -1.9770608 0.14904228 1530
2.873651 -1.9756526 0.14835396 1447
2.833576 -1.9738259 0.14766565 1471
2.797718 -1.9744641 0.14707856 1489
2.7692807 -1.9799681 0.14667368 1463
2.7028174 -1.9576452 0.14531729 869
2.6867232 -1.9712366 0.14521608 1322
2.5991297 -1.9316487 0.14331309 538
2.6151922 -1.9685968 0.14402166 1335
2.5903397 -1.9749115 0.14369774 1398
2.5172257 -1.9437364 0.14213891 934
2.5170681 -1.96838 0.14244258 1496
2.4884799 -1.9707575 0.14201745 1544
2.4568369 -1.9703579 0.14151134 1506
2.4252932 -1.9696447 0.14100522 1539
2.3930793 -1.9679841 0.14047888 1531
2.3632832 -1.9679217 0.14001325 1506
2.3374016 -1.9707894 0.13964885 1556
2.3092926 -1.9714675 0.13922372 1555
2.2827768 -1.9731823 0.13883907 1550
2.2570803 -1.9753046 0.13847467 1588
2.2284498 -1.974535 0.13802929 1537
2.200659 -1.9741565 0.13760416 1527
2.1707363 -1.971496 0.13711829 1544
2.1409297 -1.9685432 0.13663243 1541
2.1119738 -1.9659804 0.13616681 1593
2.0831306 -1.9631371 0.13570118 1626
2.0587442 -1.9641538 0.13535702 1578
2.0358629 -1.9663342 0.13505337 1641
2.0108874 -1.9662119 0.13468896 1643
1.9831476 -1.9630452 0.13424358 1634
1.9576422 -1.9617351 0.13385895 1600
1.9322281 -1.9601865 0.13347429 1595
1.9090003 -1.9605486 0.13315038 1618
1.8844547 -1.9592592 0.13278599 1630
1.8593084 -1.9570181 0.13240135 1634
1.837683 -1.9581867 0.13211793 1587
1.8174738 -1.9606301 0.13187498 1600
1.7993304 -1.9651108 0.13169278 1600
1.7657696 -1.9523939 0.13104497 706
1.7317672 -1.9385947 0.13037691 1210
1.7145454 -1.9431888 0.13021494 805
1.6841896 -1.9325749 0.1296481 498
1.6690372 -1.9390849 0.12954688 883
1.6499814 -1.940913 0.12932418 681
1.6264639 -1.9372225 0.12895979 482
1.6062467 -1.9371637 0.12869661 456
1.5981326 -1.9516227 0.12881808 416
1.5716614 -1.9435172 0.12835246 1437
1.5509677 -1.9421901 0.12806903 1652
1.5340663 -1.9453914 0.12790708 1650
1.514726 -1.9453045 0.12766415 1699
1.4978836 -1.9482231 0.12750219 1674
1.4786433 -1.9478241 0.12725925 1645
1.4582647 -1.9456633 0.12697583 1683
1.4403485 -1.94654 0.12677339 1678
1.4195263 -1.9432348 0.12646973 1670
1.4017251 -1.9438014 0.12626728 1666
1.3833902 -1.9434085 0.12604459 1680
1.3679889 -1.9469534 0.12592313 1655
1.3508859 -1.9479187 0.12574092 1652
1.3343878 -1.9495724 0.12557897 1677
1.3184805 -1.9519255 0.12543726 1698
1.3020399 -1.9533254 0.1252753 1693
1.2845323 -1.9529271 0.12507285 1669
1.2676233 -1.9532262 0.12489066 1674
1.2512988 -1.9542334 0.1247287 1694
1.2339414 -1.953424 0.12452625 1668
1.2176992 -1.954172 0.1243643 1694
1.2009708 -1.953943 0.12418211 1690
1.184291 -1.9535828 0.1239999 1671
1.1692013 -1.9556651 0.12387843 1670
1.1526062 -1.955053 0.12369624 1693
1.1375715 -1.9569036 0.12357476 1685
1.1225575 -1.9586436 0.1234533 1701
1.10412 -1.9541813 0.12319012 1733
1.0911348 -1.9591727 0.12314963 1652
1.0747596 -1.957945 0.12296744 1684
1.0589168 -1.9574696 0.12280548 1691
1.0407672 -1.9524632 0.12254231 1711
1.0231842 -1.9481932 0.12229937 1720
1.0144298 -1.9606491 0.12244108 1634
0.99556482 -1.953478 0.12213741 1700
0.98400867 -1.9604431 0.12215766 1683
0.9648664 -1.9521066 0.12183374 1714
0.95374614 -1.9597876 0.12187424 1678
0.93781167 -1.9574897 0.12169203 1694
0.92450261 -1.9604949 0.1216313 1675
0.90824294 -1.9570637 0.12142886 1685
0.89372313 -1.9571441 0.12130739 1682
0.8792367 -1.9571203 0.12118593 1674
0.86397529 -1.955164 0.12102397 1674
0.84916997 -1.954011 0.12088226 1691
0.83834422 -1.9619423 0.12094299 1620
0.82086331 -1.954147 0.12065957 1663
0.8073296 -1.955451 0.12057859 1670
0.7934345 -1.9557365 0.12047736 1676
0.78030759 -1.9577825 0.12041663 1690
0.76609081 -1.9569485 0.12029517 1693
0.75047696 -1.9522818 0.12009272 1694
0.73742354 -1.9540441 0.12003199 1704
0.72298592 -1.9519705 0.11989028 1691
0.70962745 -1.9526119 0.1198093 1718
0.69662458 -1.9541045 0.11974857 1703
0.68263894 -1.9526803 0.1196271 1721
0.66967088 -1.9539953 0.11956637 1711
0.65607482 -1.9533296 0.11946514 1723
0.64251226 -1.9525707 0.11936393 1703
0.62898374 -1.9517189 0.1192627 1711
0.61609256 -1.9526818 0.11920197 1754
0.60262233 -1.9516494 0.11910075 1747
0.58947766 -1.9514825 0.11901977 1754
0.57465559 -1.9454758 0.11881733 1753
0.56076288 -1.9422423 0.11867562 1725
0.54774737 -1.9417981 0.11859463 1764
0.53342843 -1.9364485 0.11841244 1734
0.52101642 -1.9377544 0.11837195 1757
0.50759184 -1.9351131 0.11825048 1778
0.49347481 -1.9294746 0.11806828 1769
0.48114198 -1.9305263 0.11802779 1784
0.46668804 -1.922756 0.11780511 1773
0.45303869 -1.9178001 0.11764315 1766
0.44036528 -1.9166467 0.11756217 1816
0.42663124 -1.9105318 0.11737997 1809
0.41298881 -1.9043208 0.11719777 1828
0.3977876 -1.8901885 0.11685361 1831
0.38277549 -1.8759422 0.11650946 1825
0.36737019 -1.8586411 0.11610457 1782
0.35313359 -1.846132 0.1158009 1773
0.33997598 -1.8384336 0.11559846 1754
0.32780772 -1.8355643 0.11549724 1775
0.31636849 -1.8365561 0.115477 1744
0.30591464 -1.8433938 0.11557822 1795
0.29507247 -1.8481978 0.11563895 1789
0.28555164 -1.8618314 0.11588188 1836
0.2748524 -1.8684939 0.1159831 1831
0.26310244 -1.8681654 0.11594261 1806
0.25243789 -1.8756894 0.11606409 1822
0.24066854 -1.8752196 0.11602359 1819
0.22940126 -1.8786458 0.11606409 1811
0.21833225 -1.8839904 0.11614506 1831
0.20687771 -1.8862884 0.1161653 1814
0.19519636 -1.8865277 0.11614506 1817
0.18361716 -1.8876899 0.11614506 1831
0.17193985 -1.8877853 0.11612482 1837
0.15984282 -1.882828 0.11600335 1801
0.14789207 -1.8787899 0.11590213 1783
0.13650697 -1.8816562 0.11594261 1810
0.1249588 -1.8824586 0.11594261 1816
0.11358776 -1.8861836 0.11600335 1803
0.1022847 -1.8918366 0.11610457 1830
0.090674683 -1.8924286 0.11610457 1822
0.079061255 -1.8929493 0.11610457 1820
0.067517072 -1.8953971 0.11614506 1811
0.055795923 -1.8927777 0.11608432 1799
0.044228703 -1.8950833 0.11612482 1821
0.032599859 -1.8953191 0.11612482 1828
0.020981366 -1.8964832 0.11614506 1826
0.0093389228 -1.8955765 0.11612482 1808
-0.0022936659 -1.8975976 0.1161653 1820
-0.013943885 -1.8985475 0.11618555 1824
-0.025605846 -1.8994261 0.1162058 1814
-0.037298203 -1.9012325 0.11624628 1822
-0.049038913 -1.9039663 0.11630702 1835
-0.060689155 -1.9026302 0.11628677 1820
-0.072324842 -1.9012227 0.11626653 1835
-0.08394555 -1.8997444 0.11624628 1827
-0.095401607 -1.8951994 0.1161653 1813
-0.10702853 -1.8945782 0.1161653 1803
-0.11871343 -1.8948838 0.11618555 1839
-0.1299974 -1.8891323 0.11608432 1820
-0.14180915 -1.8912903 0.11614506 1824
-0.15349157 -1.891381 0.1161653 1813
-0.16509397 -1.8904037 0.1161653 1815
-0.17715305 -1.8943326 0.11626653 1839
-0.18867444 -1.8922149 0.11624628 1824
-0.20049086 -1.8930103 0.11628677 1823
-0.21188061 -1.8897573 0.11624628 1824
-0.22312103 -1.8854429 0.11618555 1831
-0.23468567 -1.8840383 0.11618555 1834
-0.24559577 -1.8776058 0.11608432 1801
-0.25697666 -1.8750727 0.11606409 1819
-0.26805314 -1.8704914 0.11600335 1810
-0.27923045 -1.8668338 0.11596286 1819
-0.29067987 -1.8650851 0.11596286 1803
-0.30195883 -1.8622795 0.11594261 1805
-0.31288323 -1.8574337 0.11588188 1792
-0.32461753 -1.8574489 0.11592237 1800
-0.33583087 -1.8544383 0.11590213 1777
-0.34793785 -1.8562739 0.1159831 1780
-0.36083883 -1.8619571 0.11614506 1806
-0.37264824 -1.8616687 0.11618555 1800
-0.38527462 -1.8652226 0.11630702 1796
-0.39775088 -1.8677135 0.11640824 1768
-0.41005844 -1.8691444 0.11648922 1761
-0.42349711 -1.8753712 0.11667141 1784
-0.43635041 -1.8785814 0.11679288 1780
-0.45041746 -1.886567 0.11701557 1798
-0.46436116 -1.8934791 0.11721802 1762
-0.47889373 -1.9022304 0.11746095 1776
-0.49280247 -1.9079694 0.11764315 1788
-0.50603312 -1.9107093 0.11776461 1792
-0.51905447 -1.9123935 0.11786584 1772
-0.5313136 -1.9110993 0.11790632 1765
-0.5435763 -1.9097267 0.11794682 1767
-0.55556309 -1.9073157 0.11796705 1758
-0.56839579 -1.9077041 0.11804803 1772
-0.581545 -1.9089632 0.11814926 1758
-0.59562111 -1.912997 0.11831121 1762
-0.60886085 -1.9140707 0.11841244 1759
-0.6218276 -1.914103 0.11849342 1727
-0.63544625 -1.9159461 0.11861488 1760
-0.64751041 -1.9129583 0.11863513 1744
-0.66021359 -1.9117848 0.11869586 1747
-0.67292672 -1.9105273 0.11875659 1766
-0.68632418 -1.9110678 0.11885782 1742
-0.70009679 -1.9124548 0.11897928 1748
-0.71356308 -1.9128078 0.1190805 1747
-0.72706014 -1.9130671 0.11918172 1738
-0.74166852 -1.9160304 0.11934368 1748
-0.7556082 -1.9170256 0.11946514 1775
-0.769216 -1.9169934 0.11956637 1741
-0.78322929 -1.9177921 0.11968784 1756
-0.79728144 -1.9184908 0.1198093 1728
-0.81176031 -1.92001 0.11995101 1741
-0.82668233 -1.9223422 0.12011297 1716
-0.84126323 -1.9236472 0.12025468 1729
-0.85589117 -1.9248452 0.12039639 1698
-0.87015396 -1.9250247 0.12051786 1685
-0.88361728 -1.9232842 0.12059884 1695
-0.89793688 -1.9232628 0.1207203 1675
-0.91186136 -1.9222345 0.12082152 1647
-0.92580694 -1.9211076 0.12092274 1684
-0.94196862 -1.9243728 0.12112519 1640
-0.95509255 -1.9212431 0.12118593 1669
-0.96911371 -1.9198103 0.12128714 1682
-0.98269761 -1.9173876 0.12136813 1714
-0.99628824 -1.9148705 0.1214491 1687
-1.0089519 -1.9104898 0.12148959 1722
-1.0239588 -1.9104329 0.1216313 1640
-1.036139 -1.9049927 0.12165155 1680
-1.0487736 -1.9003502 0.12169203 1734
-1.0628545 -1.8982422 0.12179326 1738
-1.0769489 -1.8960328 0.12189448 1752
-1.0910561 -1.8937217 0.1219957 1766
-1.1046712 -1.8904451 0.12207668 1747
-1.1193058 -1.8887936 0.12219815 1760
-1.1349909 -1.8887476 0.1223601 1765
-1.1543562 -1.8945583 0.12266377 1729
-1.1727852 -1.8985003 0.12292695 1716
-1.193427 -1.9056773 0.1232711 1709
-1.2125939 -1.9101392 0.12355453 1708
-1.2302386 -1.911914 0.12377721 1660
-1.2430383 -1.9060047 0.1238177 1712
-1.2618718 -1.9091878 0.12408088 1676
-1.2791229 -1.9097183 0.12428333 1576
-1.293061 -1.9051439 0.1243643 1617
-1.3081237 -1.902118 0.12448577 1662
-1.32434 -1.9006201 0.12464772 1684
-1.3394345 -1.8973603 0.12476919 1662
-1.3545387 -1.8939868 0.12489066 1659
-1.3719969 -1.8937387 0.1250931 1673
-1.3889117 -1.8925412 0.1252753 1692
-1.4070553 -1.8928124 0.125498 1686
-1.4240522 -1.8913338 0.12568019 1700
-1.4392661 -1.887332 0.12580165 1693
-1.4569274 -1.8863804 0.1260041 1684
-1.4752467 -1.8860707 0.12622678 1685
-1.4929963 -1.8848232 0.12642923 1673
-1.5107861 -1.8834283 0.12663168 1657
-1.5311348 -1.884991 0.1269151 1672
-1.5496547 -1.8840572 0.12713778 1683
-1.5694996 -1.8845038 0.12740096 1653
-1.5881196 -1.8832483 0.12762365 1669
-1.6054854 -1.8803138 0.12780586 1640
-1.6248353 -1.8795066 0.12804879 1640
-1.6448935 -1.8792849 0.12831196 1634
-1.6663356 -1.8803844 0.12861563 1688
-1.68852 -1.8820359 0.12893954 1690
-1.7087712 -1.8812643 0.12920272 1668
-1.7304292 -1.8817869 0.12950638 1650
-1.7494336 -1.8791863 0.12972908 1611
-1.7712129 -1.8793342 0.13003275 1649
-1.7909896 -1.8771144 0.13027568 1627
-1.8115001 -1.8754417 0.13053885 1620
-1.8348516 -1.8764479 0.13088301 1669
-1.8568772 -1.8758162 0.13118668 1650
-1.8754265 -1.8714521 0.13138911 1630
-1.8982626 -1.8711435 0.13171303 1624
-1.9211651 -1.8706245 0.13203694 1627
-1.9484541 -1.8740547 0.13248232 1629
-1.9751323 -1.8765309 0.13290745 1646
-1.9982699 -1.8753273 0.13323137 1660
-2.016336 -1.8691505 0.13341357 1615
-2.0329268 -1.8614715 0.13355528 1609
-2.0228136 -1.8295063 0.13296819 657
-3.876539 -3.4642801 0.18301243 1292
-3.9089642 -3.4503555 0.18331611 1469
-3.9564335 -3.449306 0.18402466 1406
-4.0017638 -3.4458456 0.18467247 1386
-4.0471992 -3.4419572 0.1853203 1439
-4.0368586 -3.3906894 0.18449028 894
-4.0206575 -3.3352096 0.18351854 642
-4.0163012 -3.2901971 0.18287072 72
-4.0612831 -3.2856188 0.18351854 1034
-4.0477834 -3.2337971 0.18264803 1176
-4.0494986 -3.1946533 0.18218242 1138
-4.0540404 -3.1580691 0.18179777 1202
-4.0551171 -3.1191113 0.18133214 1265
-4.0558696 -3.0802596 0.18086652 1229
-4.0530992 -3.0391169 0.18031994 1237
-4.0531912 -3.0005045 0.1798543 1269
-4.056191 -2.9643667 0.17946966 1293
-4.053226 -2.9242094 0.17894331 1313
-4.0482922 -2.8830407 0.17837647 1262
-4.0470967 -2.8449183 0.17791083 1209
-4.0390153 -2.8023591 0.17728326 1195
-4.0297403 -2.7594421 0.17663544 1208
-4.0333438 -2.7257044 0.17631152 1210
-4.0358539 -2.6914718 0.17596737 1244
-3.9821467 -2.6204767 0.17426684 924
-2.9375401 -1.9070274 0.14865762 828
-2.9475024 -1.8878881 0.14861713 785
-2.9615662 -1.8713702 0.14867787 808
-2.9611166 -1.8457553 0.14839445 913
-3.0055962 -1.8479837 0.14918399 1413
-3.0365376 -1.841436 0.14964961 1393
-3.0855269 -1.8453594 0.15054035 1440
-3.1320944 -1.8472259 0.15137038 1443
-3.1805279 -1.849595 0.15224089 1475
-3.2204351 -1.8464632 0.15290895 1488
-3.2612927 -1.8434033 0.15359727 1461
-3.3083453 -1.8433183 0.15442729 1547
-3.3388703 -1.8335767 0.15487267 1469
-3.382587 -1.8306708 0.15562171 1581
-3.4343312 -1.8315332 0.15655296 1477
-3.464973 -1.820662 0.15699834 1462
-3.4006183 -1.7602812 0.15527755 1174
-3.4095743 -1.7384735 0.15523706 1216
-1.7282451 1.0776095 0.11301772 642
-1.7216004 1.0881937 0.11301772 679
-1.7123662 1.0971173 0.11296589 763
-1.6980577 1.1026988 0.11281039 638
-1.6862501 1.1097966 0.11270672 569
-1.6719251 1.1151257 0.11255122 554
-1.6675357 1.1270442 0.11260305 586
-1.6581148 1.1355586 0.11255122 583
-1.6470101 1.1428592 0.11246483 511
-1.639149 1.1523682 0.11244755 488
-1.5807582 1.1258355 0.11135904 296
-1.0269895 0.75017238 0.099800125 202
-0.97432268 0.75857186 0.09916085 206
-0.94689494 0.74656457 0.098659784 146
-0.93999308 0.76001608 0.098711625 162
-1.0090545 0.83664834 0.10047397 237
-0.9618122 0.80743283 0.099523678 743
-0.95760113 0.81396741 0.099540964 806
-0.98363858 0.84659338 0.10024936 585
-1.0334162 0.90060711 0.10151064 349
-0.91997892 0.81159395 0.099022627 195
-0.91721725 0.81922346 0.099074453 158
-0.90995008 0.82282233 0.099022627 172
-0.90414727 0.8277145 0.099005342 135
-0.9437508 0.87474197 0.1000593 125
-0.89264905 0.86902016 0.099350899 100
-0.88969725 0.88768327 0.099540964 106
-0.82076037 0.8391571 0.098106891 71
-0.79029876 0.90275413 0.098556116 87
-0.38930768 1.1739327 0.099195406 132
-0.39380601 1.2124444 0.099851966 163
-0.31295329 1.1530942 0.098469734 132
-0.30326542 1.1742771 0.098780736 152
-0.29595187 1.2070485 0.099299073 140
-0.23427613 1.1705949 0.098452449 134
-0.22539383 1.2028686 0.098970786 144
-0.21369867 1.2232752 0.099281788 143
-0.19867112 1.2258056 0.099281788 105
-0.17720215 1.2371737 0.099420011 102
-0.1648407 1.2610686 0.099800125 92
-0.15795891 1.2690023 0.099921077 78
-0.15133587 1.2798777 0.10009386 112
-0.13488731 1.2746778 0.099972911 100
-0.10899041 1.2490529 0.099489123 95
-0.10084426 1.2437183 0.099385455 73
-0.096979484 1.2951666 0.10026664 158
-0.088556267 1.2887545 0.10014569 156
-0.081140138 1.2972572 0.10028391 117
-0.071513057 1.2677814 0.099765569 116
-0.054435607 1.2336015 0.09916085 202
-0.046048276 1.2119306 0.098780736 157
-0.038456097 1.2071936 0.098694339 134
-0.032267079 1.2563844 0.099540964 100
-0.023657823 1.2085742 0.098711625 79
-0.016468646 1.2266926 0.099022627 94
-0.0080482084 1.088794 0.096638277 171
-0.0013977727 1.1788095 0.098193288 434
0.0058005117 1.1727968 0.09808962 479
0.028935654 1.236463 0.099195406 215
0.042028341 1.1790613 0.098210558 596
0.061694454 1.141149 0.097571284 118
0.07881695 1.3064154 0.10043941 214
0.08689858 1.3069048 0.10045669 185
0.093744509 1.2903923 0.10018025 179
0.10205711 1.2947764 0.10026664 138
0.11102515 1.3060801 0.10047397 80
0.12224157 1.340222 0.1010787 89
0.12860706 1.3205405 0.10075042 87
0.12882082 1.2441481 0.099437296 173
0.13579313 1.2373716 0.099333629 219
0.14419471 1.2434666 0.099454567 253
0.15462905 1.2653831 0.099851966 166
0.16354369 1.273335 0.10000747 135
0.19014524 1.4110197 0.10242637 51
0.20272799 1.4375452 0.10291015 54
0.20085946 1.3640715 0.10164887 92
0.21440841 1.3964108 0.10223632 83
0.26465827 1.6547047 0.1067804 73
0.31791976 1.9114382 0.11130721 38
0.29620394 1.7163545 0.10792074 106
0.30549318 1.707616 0.1077998 142
0.31706125 1.7116075 0.10790347 131
0.27905944 1.4572862 0.10346305 104
0.27163866 1.3731674 0.1020117 85
0.28750724 1.3249489 0.10125148 105
0.28819442 1.2899883 0.10066403 137
0.30981219 1.3476262 0.10171798 78
0.52131724 2.2028008 0.11693981 36
0.53103697 2.1840174 0.11666336 38
0.53666413 2.1496789 0.11611047 305
0.54984426 2.1463456 0.11611047 801
0.57242018 2.1787074 0.11674975 1113
0.58629853 2.1770847 0.1167843 1146
0.59858048 2.1695914 0.11671519 1023
0.61814338 2.1880054 0.11711258 473
0.62376887 2.1572807 0.1166288 227
0.63131309 2.1342397 0.11628325 812
0.66150177 2.1867826 0.11730264 1137
0.67756921 2.1912785 0.11745814 1191
0.69341505 2.194706 0.11759637 1212
0.70656091 2.1894581 0.11757909 1185
0.72123516 2.1888797 0.1176482 1193
0.73656708 2.1900983 0.11775187 1218
0.75194108 2.1912112 0.11785553 1226
0.76801783 2.1941047 0.11799376 1248
0.78247571 2.1921754 0.11804559 1235
0.79625422 2.1882725 0.11806287 1177
0.81001431 2.1842828 0.11808015 1183
0.82693952 2.188623 0.11825293 1220
0.839634 2.1816421 0.11821837 1188
0.85336977 2.1773798 0.11823565 1171
0.86745572 2.1739597 0.1182702 1133
0.88454503 2.1778581 0.11844298 1185
0.90324378 2.185324 0.11868487 1244
0.91779959 2.1825051 0.11873671 1215
0.93038666 2.174994 0.11870215 1587
0.94571096 2.1738279 0.11878854 1609
0.96146077 2.1734695 0.11889221 1620
0.97724158 2.1729994 0.11899588 1594
0.99430108 2.1751447 0.11915138 1607
1.0105802 2.175349 0.11927232 1626
1.0281806 2.1781473 0.1194451 1595
1.044988 2.1790085 0.11958332 1594
1.0614063 2.1788464 0.11970427 1557
1.0778617 2.1785645 0.11982521 1577
1.0939043 2.1772695 0.11992888 1574
1.1104262 2.1767497 0.12004983 1578
1.127903 2.1778841 0.12020533 1575
1.1449699 2.1780009 0.12034355 1152
1.1667908 2.1868098 0.12065455 1158
1.1863805 2.1910369 0.12087917 1220
1.2007657 2.1854684 0.12091372 1163
1.2165887 2.182425 0.12100011 1152
1.2378376 2.1888411 0.12127656 1223
1.2542318 2.1864071 0.12138022 1222
1.2736619 2.1890383 0.12158756 1234
1.2885948 2.1837647 0.12163939 1208
1.3081349 2.1861103 0.12184673 1250
1.3246379 2.1831703 0.1219504 1240
1.3422024 2.1818125 0.12208863 1236
1.3613882 2.1828659 0.12227868 1208
1.3801028 2.1829205 0.12245145 1188
1.3972496 2.1803026 0.12257241 1259
1.414961 2.1783943 0.12271063 1185
1.4327015 2.1763506 0.12284885 1161
1.452691 2.1774971 0.12305619 1246
1.4693862 2.1735113 0.12315986 1107
1.4928715 2.1792984 0.12347086 1166
1.5153421 2.1832359 0.1237473 1217
1.5356151 2.1837087 0.12395464 1228
1.5542091 2.1815724 0.12411013 1242
1.5728347 2.1792896 0.12426564 1186
1.5914905 2.1768603 0.12442113 1190
1.6119616 2.1766937 0.12462847 1226
1.6318899 2.1755574 0.12481853 1238
1.6500494 2.1718707 0.12495676 1181
1.668225 2.1680431 0.12509498 1185
1.6907196 2.1695926 0.12535414 1195
1.7126759 2.1701629 0.12559603 1241
1.7340779 2.169764 0.12582065 1170
1.7586859 2.1730688 0.12613165 1184
1.780229 2.1722872 0.12635626 1189
1.8018283 2.1713228 0.12658088 1155
1.8267 2.174001 0.12689188 1119
1.8497273 2.1741714 0.12715104 1115
1.8715197 2.1726255 0.12737566 1099
1.8940197 2.1716475 0.12761755 1112
1.9172401 2.1712239 0.12787671 1087
1.940526 2.1705966 0.12813589 1107
1.9645474 2.1705058 0.12841234 1171
1.9852616 2.1665173 0.12860239 1125
2.0073609 2.1638212 0.12882701 1115
2.0384033 2.1704068 0.12927623 1142
2.0606418 2.1672754 0.12950084 1063
2.081531 2.1625123 0.1296909 1114
2.1296623 2.1854923 0.1305548 520
2.1114237 2.1403635 0.12977728 334
2.1768174 2.1797035 0.13105585 1446
2.1993949 2.1754434 0.13128047 647
2.2198555 2.1688921 0.13145325 367
2.2280843 2.150372 0.13133229 959
2.2571626 2.1518331 0.13171241 1032
2.2907112 2.1571293 0.13219619 1160
2.3478427 2.1838782 0.13323286 942
2.3700364 2.1775458 0.1334402 928
2.3885374 2.1676643 0.13356115 1064
2.4233897 2.1723154 0.1340622 933
2.4471564 2.1666806 0.13430409 990
2.4777203 2.1667573 0.13470149 913
2.5068631 2.1652339 0.13506432 897
2.5467319 2.1725149 0.13566905 1036
2.5776055 2.1716595 0.13606644 1071
2.6016448 2.1647525 0.13630833 1028
2.6372864 2.1671507 0.13680939 1044
2.6668417 2.1641536 0.13717222 1028
2.69802 2.1621253 0.13756962 1016
2.7449577 2.1721997 0.13831256 982
2.7763588 2.1694703 0.13870996 1010
2.8094127 2.1676581 0.1391419 960
2.8465257 2.1685498 0.13966024 1001
2.8821561 2.1678653 0.14014402 964
2.9162786 2.165633 0.14059326 1024
2.9537077 2.1654263 0.14111158 1020
2.9928634 2.1660137 0.14166448 1022
3.0264406 2.1621339 0.14209643 1028
3.0625334 2.1596513 0.14258021 939
3.1102002 2.1648004 0.14330588 989
3.1440315 2.1598239 0.14373782 965
3.1911619 2.163487 0.14444622 1021
3.2284801 2.1599829 0.14494729 981
3.2575295 2.1505952 0.14527556 1006
3.2932875 2.1452963 0.14574206 1283
3.1616943 2.032104 0.14277026 551
3.1099181 1.9719905 0.14145714 1524
3.3254347 2.0800738 0.14560384 317
3.5253668 2.1750863 0.14940497 917
3.5642738 2.1690009 0.14992332 772
3.6092403 2.1661198 0.1505626 868
3.66291 2.1678584 0.15137467 885
3.7089622 2.164485 0.15203121 961
3.7733119 2.1710947 0.15305062 865
3.8265727 2.1705847 0.1538454 809
3.8756042 2.167063 0.1545538 896
3.9177284 2.1591616 0.15512396 947
3.9994433 2.1722903 0.15647164 923
4.0585413 2.1722336 0.15737009 874
4.0939069 2.1589451 0.15780205 857
4.1478944 2.1549804 0.15859681 810
4.2269111 2.1631823 0.15987539 881
4.3008246 2.1677952 0.16105029 860
4.365099 2.1666934 0.16203512 823
4.3315949 2.1170483 0.16113667 957
4.252594 2.0462303 0.15937433 1348
4.26507 2.0200982 0.15937433 1407
4.4178634 2.0593383 0.16205239 1189
4.4840412 2.0567758 0.1630718 1179
4.5667567 2.0608773 0.16440219 1244
4.6469474 2.0628238 0.16568077 1248
4.7227492 2.0618629 0.16687295 1242
4.7711468 2.0482216 0.16754678 1142
4.8693004 2.0550473 0.16915363 1106
4.9630961 2.0588298 0.17067409 1124
5.0210071 2.0468242 0.1715207 1226
5.0743141 2.0323267 0.17228092 1526
5.0885496 2.0018845 0.17231548 575
5.5950851 2.1615074 0.18147276 641
5.6390953 2.1388319 0.18204293 589
5.7795553 2.1516118 0.18439272 1131
5.8734198 2.1456001 0.18587863 1124
5.9956641 2.1486316 0.18788287 665
6.1332564 2.155544 0.19016355 707
6.2380667 2.149452 0.1918395 685
6.3619761 2.1485491 0.19386101 648
6.4861054 2.1462052 0.19588253 621
6.6190019 2.1451907 0.19805954 572
6.8674459 2.1792009 0.20232719 563
6.9074254 2.1453218 0.20281097 597
7.3854151 2.2441127 0.21120803 692
7.4000039 2.1990392 0.2112253 738
7.4479241 2.1636291 0.21184731 704
7.6322756 2.166466 0.21492277 812
7.9123263 2.1935532 0.21970876 1610
7.9227414 2.1441796 0.21965693 1718
7.9183474 2.0909333 0.21934591 1734
7.915535 2.0383205 0.21906947 1735
7.9133458 1.9860642 0.2188103 1751
7.9117856 1.9341489 0.21856841 1746
7.9225311 1.8853354 0.21855113 1772
7.9193387 1.8333074 0.21829197 1774
7.917757 1.7818285 0.21806735 1784
7.9207273 1.7315054 0.21792912 1775
7.9028373 1.6768572 0.21742807 1766
7.8316913 1.611618 0.215994 1755
7.4227276 1.4801006 0.20861635 1831
7.4454141 1.437179 0.20885824 1809
7.4501605 1.3907344 0.20878913 1811
7.449698 1.3433992 0.20863362 1803
7.4597707 1.2980058 0.20866817 1834
7.4656224 1.2518786 0.20863362 1873
7.4642792 1.2046144 0.20847812 1887
7.4616494 1.1572605 0.20830534 1897
7.4656434 1.1110139 0.2082535 1897
6.5279903 0.93069738 0.19177039 1747
6.5296154 0.89008528 0.19170128 1870
6.5359459 0.85013241 0.19171855 1050
6.5410385 0.81001252 0.19171855 940
3.6889548 0.43429741 0.14201003 1245
3.7392488 0.41696024 0.14283937 398
3.7089219 0.39056221 0.14226921 378
3.7231886 0.3689774 0.14247654 383
3.7293651 0.34649432 0.14254566 408
3.724448 0.32300198 0.1424247 387
3.7303464 0.30046314 0.14249381 450
3.7271342 0.27719906 0.14240743 370
3.7377427 0.25493455 0.14256293 1577
3.7392366 0.23199537 0.14256293 502
3.7365966 0.20882538 0.14249381 1558
3.6898735 0.18352301 0.14166448 608
3.7438722 0.16317222 0.14258021 1545
3.7228215 0.1393801 0.1422001 1401
3.6456559 0.11411604 0.14085242 917
3.6902673 0.092839092 0.14161265 1147
3.7097611 0.070550382 0.14194092 405
3.7161229 0.047862038 0.1420446 414
3.7103477 0.025020596 0.14194092 389
3.672437 0.0022410117 0.14128438 343
3.688379 -0.020385431 0.14156082 339
3.7111795 -0.043290947 0.14195821 371
3.706845 -0.065989234 0.1418891 387
3.7073698 -0.088756964 0.14190638 1548
3.6407957 -0.10950136 0.14076602 466
3.7080002 -0.13431834 0.14194092 1572
3.7091038 -0.15715286 0.14197549 1564
3.6591353 -0.17752112 0.14112887 544
3.6859307 -0.2015056 0.14161265 399
3.6187577 -0.22009397 0.14047231 709
3.6662214 -0.24558184 0.14131892 1405
3.6756144 -0.2688781 0.14150898 372
3.6679151 -0.29095018 0.14140531 422
3.6630721 -0.31319425 0.14135349 348
3.6790037 -0.33731264 0.14166448 360
3.6758695 -0.35978255 0.1416472 395
3.674587 -0.38243425 0.14166448 438
3.6612396 -0.40376532 0.14147443 393
3.7113273 -0.43236881 0.14239016 1389
4.0380726 -0.49565583 0.14812642 1891
7.7058773 -0.9948113 0.2120892 907
7.9542642 -1.076571 0.21652962 1845
7.9494886 -1.1256378 0.21656418 1845
7.9483662 -1.1752719 0.21666785 1861
7.9518752 -1.2256969 0.2168579 1861
7.9491415 -1.2752582 0.21694429 1847
7.947084 -1.3249965 0.21704796 1826
7.940774 -1.3740752 0.21708252 1810
7.9341621 -1.4231261 0.21711707 1784
7.9390426 -1.4743401 0.21735896 1786
7.9327927 -1.5235915 0.21741079 1764
7.9252563 -1.5726269 0.21744534 1758
7.9223142 -1.622631 0.2175663 1784
7.9200344 -1.6728648 0.21770452 1777
7.2335687 -1.574208 0.20574822 1578
7.3554826 -1.6480925 0.20808072 1700
7.9268713 -1.8273522 0.21839564 1819
7.9291301 -1.8791858 0.21863753 1827
7.9271646 -1.9301693 0.2188103 1825
7.9103227 -1.97756 0.21872391 1792
7.7973189 -2.0002093 0.21692701 1409
7.5866814 -1.9958422 0.21338505 1371
7.1813993 -1.9363612 0.20635293 1302
7.0922852 -1.9590814 0.2049707 1543
7.0252929 -1.9870431 0.20398587 1355
6.8583469 -1.9853295 0.20120412 1322
6.7099071 -1.9870404 0.19875066 1323
6.5684075 -1.9890352 0.19641814 1365
6.4596143 -1.9994267 0.19467308 1330
6.2746835 -1.9844279 0.19154578 1329
6.1691518 -1.992758 0.18985254 1297
6.0172329 -1.9845167 0.18731269 1253
5.8931322 -1.9837425 0.1852739 1254
5.7579246 -1.9776223 0.18302777 1295
5.6683092 -1.9857945 0.18161099 1324
5.5571585 -1.9852024 0.17979681 1289
5.413352 -1.9713422 0.17737791 1262
5.341166 -1.9822458 0.17627212 1328
5.2363214 -1.9799557 0.1745616 1318
5.1410394 -1.98005 0.17302388 1328
5.0589867 -1.9841642 0.17172803 1358
4.971509 -1.9851216 0.17032853 1392
4.8730984 -1.9805615 0.16872168 1356
4.7878685 -1.9802221 0.16735673 1386
4.6890059 -1.9730929 0.16573259 1400
4.6253409 -1.9797841 0.16476503 1421
4.5480223 -1.9797803 0.16353831 1368
4.4626517 -1.9752594 0.16215608 1343
4.3948336 -1.9775656 0.16110212 1371
4.3189745 -1.9753704 0.15989266 1359
4.2469373 -1.9740063 0.15875232 1245
4.1723685 -1.9705521 0.15756014 1401
4.1124272 -1.9731818 0.15664442 1424
4.0499158 -1.9738363 0.15567686 1357
3.9884493 -1.9742424 0.15472656 1400
3.9333849 -1.9771144 0.15389723 1390
3.8686419 -1.9743838 0.15287784 1382
3.8085206 -1.973235 0.15194483 1385
3.762718 -1.9788735 0.15128827 1428
3.7002342 -1.9750751 0.15030342 1370
3.6493678 -1.9767793 0.1495432 1380
3.5986214 -1.9779342 0.14878297 1343
3.5078356 -1.9561312 0.14722797 825
3.4940267 -1.9766332 0.1471934 266
3.427206 -1.9666697 0.1461049 209
3.3416331 -1.944892 0.14463627 176
3.3330801 -1.967393 0.14470538 1402
3.3012168 -1.9759917 0.144308 1461
3.2522824 -1.9738939 0.14356506 1463
3.1975393 -1.9676011 0.14270115 1482
3.1531756 -1.967065 0.1420446 1454
3.117389 -1.9714059 0.14156082 1500
3.0783024 -1.9732229 0.14100793 1503
3.0351205 -1.9719102 0.14036864 1462
2.9929068 -1.9706929 0.13974664 1455
2.9558125 -1.9723639 0.1392283 1502
2.9146707 -1.9708527 0.13862357 1475
2.8761339 -1.9706079 0.13807067 1482
2.8409956 -1.9722469 0.13758689 1498
2.8010399 -1.9700766 0.13699944 1514
2.7758734 -1.9779391 0.136723 1494
2.7069473 -1.9539537 0.13551354 964
2.6941004 -1.9699361 0.13549627 1320
2.6160927 -1.9376119 0.13407949 497
2.6233451 -1.9680336 0.13449416 1327
2.5945058 -1.9713849 0.13413131 1384
2.5213618 -1.9402957 0.13280092 1048
2.5228124 -1.9661828 0.13309464 1421
2.496577 -1.9704708 0.13278364 1494
2.46648 -1.9713888 0.13238625 1528
2.4387977 -1.9739002 0.13204069 1492
2.4042201 -1.9704401 0.13153963 1524
2.3759313 -1.9717408 0.1311768 1528
2.3484826 -1.9734126 0.13083124 1564
2.3203425 -1.974174 0.1304684 1547
2.2922816 -1.9746652 0.13010557 1547
2.2627964 -1.9735717 0.12970817 1522
2.2364087 -1.9748397 0.1293799 1530
2.2093456 -1.9751917 0.12903434 1538
2.1801398 -1.973273 0.12863694 1551
2.1517785 -1.9717467 0.12825683 1485
2.1235185 -1.9699471 0.12787671 1562
2.0946336 -1.9671909 0.12747933 1556
2.0687606 -1.9669114 0.12715104 1549
2.0458512 -1.9691638 0.12689188 1580
2.0208445 -1.9691154 0.12658088 1550
1.9923583 -1.9653225 0.12618348 1575
1.9682387 -1.9654956 0.12588976 1600
1.9434894 -1.9647359 0.12557876 1564
1.9181257 -1.9630314 0.12525047 1564
1.8935508 -1.96181 0.12493947 1594
1.8697531 -1.9610853 0.12464575 1556
1.8487769 -1.9630554 0.12442113 1596
1.8285282 -1.9655746 0.1242138 1639
1.8123757 -1.9723383 0.12411013 1602
1.7901639 -1.9723125 0.12385097 848
1.7653525 -1.9691098 0.12352268 455
1.7419732 -1.9671752 0.12322897 359
1.730528 -1.9785794 0.12324624 394
1.7033286 -1.9717525 0.12284885 344
1.6762785 -1.9646668 0.12245145 364
1.6545321 -1.9634428 0.12219229 344
1.6571572 -1.9912395 0.12258968 281
1.6398314 -1.9951887 0.12245145 327
1.5526112 -1.9128025 0.12039538 1143
1.5602212 -1.9464858 0.120931 1561
1.5432866 -1.9497486 0.12079278 1547
1.5245247 -1.9505131 0.12060272 1581
1.5058117 -1.9511211 0.12041266 1593
1.4865433 -1.9507776 0.12020533 1579
1.4691383 -1.9526694 0.12004983 1624
1.4529581 -1.9560268 0.11992888 1616
1.4350194 -1.9568399 0.1197561 1578
1.4165395 -1.9566967 0.11956605 1623
1.3992778 -1.9580281 0.11941054 1578
1.3791733 -1.9551353 0.11916865 1560
1.3614411 -1.955353 0.11899588 1578
1.3426266 -1.9537786 0.11878854 1617
1.327248 -1.9570136 0.11868487 1616
1.3096572 -1.956809 0.11851209 1569
1.2937713 -1.9589663 0.11839115 1594
1.2779082 -1.9610025 0.1182702 1576
1.2609884 -1.9612353 0.1181147 1612
1.2446491 -1.9621793 0.11797648 1596
1.2272857 -1.9613013 0.1178037 1574
1.21103 -1.9619865 0.11766548 1577
1.1958512 -1.9642546 0.11756181 1554
1.1781188 -1.9621238 0.11737175 1574
1.163003 -1.9641521 0.11726809 1562
1.147403 -1.9652054 0.11714714 1585
1.132831 -1.9678751 0.11706075 1541
1.1158038 -1.9660909 0.11688797 1585
1.0993291 -1.9650453 0.11673247 1607
1.0843567 -1.966499 0.1166288 1561
1.0679767 -1.9652069 0.1164733 1586
1.0540119 -1.9681964 0.11640419 1571
1.0395844 -1.9702042 0.1163178 1571
1.027476 -1.9765458 0.1163178 1529
1.0098649 -1.9721313 0.11611047 1568
0.99414641 -1.9711468 0.11597224 1572
0.97847807 -1.9700444 0.11583402 1583
0.96154428 -1.9661287 0.11564396 1565
0.94556218 -1.9638821 0.11548846 1560
0.93263865 -1.9678396 0.11545391 1553
0.91590202 -1.9635555 0.11526385 1560
0.90925336 -1.9809541 0.11548846 1520
0.89338148 -1.9782929 0.11533296 1527
0.88000965 -1.9809957 0.11528113 1474
0.86263955 -1.9744446 0.11505651 1530
0.85050833 -1.9797004 0.11505651 1496
0.83873373 -1.9858031 0.11507379 1492
0.82078922 -1.9770578 0.11481462 1530
0.81052911 -1.9866868 0.11490101 1521
0.79832375 -1.9916226 0.11490101 1470
0.78096616 -1.9834565 0.11465912 1531
0.76986164 -1.9910092 0.11471096 1517
0.75195968 -1.9807369 0.11443451 1530
0.73839724 -1.9815651 0.1143654 1520
0.72313833 -1.9776057 0.1142099 1550
0.71166468 -1.9838881 0.11424445 1492
0.69947839 -1.9882175 0.11424445 1480
0.68628901 -1.9896361 0.11419262 1447
0.67374814 -1.9928622 0.11417534 1478
0.66056561 -1.9941108 0.11412351 1403
0.64708507 -1.9943216 0.1140544 1432
0.6345337 -1.9973015 0.11403712 1461
0.62078434 -1.996383 0.11395073 1453
0.60794199 -1.9982409 0.11391617 1469
0.59424615 -1.9971412 0.11382978 1470
0.58030784 -1.9949887 0.11372612 1446
0.5661456 -1.9917786 0.11360517 1458
0.55204463 -1.9884702 0.11348423 1468
0.53878886 -1.9879594 0.11341511 1427
0.52530497 -1.9863942 0.11332873 1441
0.51335609 -1.9905483 0.113346 1512
0.50064611 -1.9917212 0.11331145 1511
0.48912764 -1.9976693 0.11336328 1474
0.47732368 -2.0025785 0.11339784 1481
0.46412557 -2.0015731 0.11332873 1509
0.45183545 -2.0043833 0.11332873 1457
0.43803442 -2.0002804 0.11320778 1559
0.42450821 -1.9970617 0.11310411 1577
0.40882257 -1.9829799 0.11281039 1602
0.39488903 -1.9766258 0.11265489 1617
0.38445756 -1.9878473 0.11281039 1593
0.37353653 -1.9970492 0.11293133 1509
0.36163047 -2.0012715 0.11296589 1429
0.3493441 -2.0034528 0.11296589 1485
0.33654889 -2.0026004 0.11291406 1517
0.32377735 -2.0016663 0.11286222 1531
0.31133613 -2.0026271 0.11284494 1548
0.29845423 -2.0005441 0.11277583 1491
0.28575057 -1.9993681 0.112724 1488
0.27320752 -1.9991024 0.11268944 1515
0.26093608 -2.000741 0.11268944 1465
0.24840942 -2.00032 0.11265489 1434
0.23613101 -2.0018065 0.11265489 1446
0.22362265 -2.0012302 0.11262033 1446
0.21123467 -2.00157 0.11260305 1441
0.19894928 -2.0028286 0.11260305 1496
0.18637972 -2.001025 0.11255122 1465
0.17358144 -1.9961541 0.11244755 1475
0.16141 -1.9981781 0.11246483 1426
0.14892469 -1.9961396 0.112413 1446
0.13660604 -1.9960183 0.11239572 1438
0.12423283 -1.9948231 0.11236116 1438
0.11182391 -1.9925529 0.11230933 1458
0.099496938 -1.9912041 0.11227477 1487
0.087190725 -1.9897794 0.11224022 1438
0.074868612 -1.9872794 0.11218838 1465
0.06264247 -1.9867021 0.11217111 1467
0.050451122 -1.987049 0.11217111 1507
0.038257863 -1.987321 0.11217111 1513
0.026037958 -1.9855188 0.11213655 1494
0.013815712 -1.9796423 0.11203288 1485
0.0016685964 -1.97969 0.11203288 1503
-0.010461194 -1.9766634 0.11198105 1489
-0.022589575 -1.9765619 0.11198105 1451
-0.034717105 -1.9763861 0.11198105 1489
-0.04691593 -1.9791344 0.11203288 1456
-0.059210446 -1.9838064 0.11211927 1489
-0.07134527 -1.9824065 0.11210199 1447
-0.083678119 -1.9859272 0.11217111 1473
-0.095910691 -1.9863751 0.11218838 1446
-0.1080422 -1.9847506 0.11217111 1483
-0.12040129 -1.9870446 0.11222294 1489
-0.13218872 -1.9802828 0.11211927 1449
-0.14433703 -1.9794343 0.11211927 1496
-0.15640055 -1.9775149 0.11210199 1458
-0.16844596 -1.9755216 0.11208472 1436
-0.18065593 -1.9754467 0.11210199 1505
-0.1931643 -1.9782813 0.11217111 1466
-0.20571426 -1.9810365 0.11224022 1482
-0.21852501 -1.9856998 0.11234389 1460
-0.23116879 -1.9882938 0.112413 1504
-0.24397466 -1.9918 0.11249939 1440
-0.25696036 -1.9962151 0.11260305 1465
-0.26960677 -1.9975734 0.11265489 1458
-0.28185856 -1.9958814 0.11265489 1489
-0.29409978 -1.9941144 0.11265489 1470
-0.30587256 -1.9893078 0.11260305 1499
-0.31823146 -1.9883809 0.11262033 1505
-0.3299323 -1.9834321 0.1125685 1478
-0.34243742 -1.9833405 0.11260305 1472
-0.35566038 -1.9871069 0.11270672 1478
-0.36857706 -1.9888192 0.11277583 1477
-0.38190553 -1.9924115 0.1128795 1475
-0.3950972 -1.9949343 0.11296589 1459
-0.4075312 -1.9934521 0.11298317 1448
-0.4197551 -1.9909139 0.11298317 1468
-0.43175048 -1.987324 0.11296589 1473
-0.44437379 -1.9865885 0.11300045 1450
-0.45677963 -1.9847988 0.11301772 1442
-0.4696416 -1.9848772 0.11306956 1422
-0.48252174 -1.9848726 0.11312139 1417
-0.49541944 -1.9847845 0.11317322 1367
-0.50883138 -1.9865495 0.11325961 1416
-0.52177453 -1.9862908 0.11331145 1436
-0.53395236 -1.9830518 0.11331145 1433
-0.54611009 -1.9797381 0.11331145 1425
-0.55906397 -1.9792362 0.11336328 1433
-0.57064152 -1.973848 0.11332873 1431
-0.58302611 -1.9712679 0.113346 1432
-0.59569043 -1.9695673 0.11338056 1433
-0.60717267 -1.9639649 0.113346 1392
-0.62041855 -1.9640155 0.11341511 1409
-0.63368767 -1.9639772 0.11348423 1498
-0.64635319 -1.9619511 0.11351878 1402
-0.66252804 -1.9702663 0.11374339 1409
-0.6762296 -1.970892 0.11382978 1466
-0.68963295 -1.97048 0.1138989 1465
-0.70339322 -1.9709188 0.11398529 1418
-0.71513104 -1.9656264 0.11396801 1440
-0.72787458 -1.963076 0.11400256 1425
-0.74096751 -1.9613783 0.1140544 1408
-0.75478595 -1.9614599 0.11414079 1426
-0.76899844 -1.9623761 0.11424445 1462
-0.78213775 -1.9604062 0.11429629 1452
-0.79377526 -1.954644 0.11427901 1445
-0.80690068 -1.9525082 0.11433084 1455
-0.82002974 -1.950285 0.11438268 1426
-0.83316189 -1.9479741 0.11443451 1434
-0.84709507 -1.9474086 0.1145209 1483
-0.8618623 -1.9485738 0.11464185 1487
-0.87667555 -1.9496307 0.11476279 1426
-0.89111823 -1.9496698 0.11486646 1466
-0.90475082 -1.9477918 0.11493557 1461
-0.92010272 -1.9494357 0.11507379 1431
-0.93074882 -1.9410493 0.11502196 1492
-0.94527078 -1.9406939 0.11512563 1499
-0.95893586 -1.9384412 0.11519474 1507
-0.97171038 -1.9343073 0.11522929 1524
-0.98447013 -1.9300895 0.11526385 1537
-0.99951571 -1.9302261 0.11538479 1515
-1.0136685 -1.928481 0.11547118 1531
-1.0297216 -1.9301625 0.11562669 1508
-1.0377342 -1.9167757 0.11548846 1567
-1.0509211 -1.9130005 0.1155403 1583
-1.064588 -1.9100085 0.11560941 1623
-1.0772727 -1.9051808 0.11564396 1590
-1.0919294 -1.9037374 0.11574763 1644
-1.106609 -1.9021856 0.1158513 1643
-1.1202936 -1.8988034 0.11592041 1636
-1.1355196 -1.8978981 0.11604135 1640
-1.1554474 -1.9045687 0.1163178 1638
-1.1775962 -1.9144711 0.11666336 1626
-1.1972625 -1.9199322 0.11692253 1599
-1.2143668 -1.9209988 0.11709531 1611
-1.2309892 -1.921086 0.11725081 1583
-1.2476583 -1.9210413 0.11740631 1561
-1.2643729 -1.9208639 0.11756181 1551
-1.2772458 -1.9147327 0.11759637 1584
-1.2923321 -1.9118284 0.11770003 1598
-1.3085613 -1.91046 0.11783826 1597
-1.3236817 -1.9073218 0.11794192 1576
-1.339388 -1.9048876 0.11806287 1586
-1.3568555 -1.9047744 0.11823565 1597
-1.3732009 -1.9028974 0.11837387 1584
-1.3913454 -1.903312 0.11856393 1589
-1.4095464 -1.9035752 0.11875398 1605
-1.428403 -1.9044859 0.11896132 1533
-1.4485339 -1.9068284 0.11920321 1499
-1.4638671 -1.9026579 0.11930688 1557
-1.4810479 -1.9007359 0.11946238 1548
-1.4970205 -1.8971051 0.11958332 1564
-1.5142531 -1.8949112 0.11973882 1615
-1.5321445 -1.8933541 0.1199116 1602
-1.5500734 -1.8916484 0.12008438 1585
-1.5693164 -1.8913323 0.12029172 1588
-1.5866832 -1.8885549 0.12044722 1603
-1.6047227 -1.8863969 0.12062 1580
-1.624754 -1.88636 0.12084461 1585
-1.6448448 -1.886148 0.12106922 1603
-1.6663181 -1.8872586 0.12132839 1619
-1.6878662 -1.8881764 0.12158756 1603
-1.7074746 -1.8866771 0.12179489 1561
-1.7291551 -1.8872187 0.12205406 1610
-1.7502259 -1.8868321 0.12229596 1612
-1.7720413 -1.8869863 0.12255512 1589
-1.7904781 -1.8833214 0.1227279 1570
-1.8151791 -1.8859824 0.12305619 1584
-1.8343956 -1.8826834 0.12324624 1569
-1.8578539 -1.8834891 0.12353997 1578
-1.8785639 -1.8812481 0.12376457 1573
-1.9035822 -1.8830409 0.12409286 1586
-1.9272621 -1.8832 0.12438658 1607
-1.9546134 -1.8866097 0.12476669 1589
-1.9755634 -1.8835467 0.12499131 1575
-1.9987335 -1.8823531 0.12526776 1600
-2.0175688 -1.8768612 0.12544054 1582
-2.0342023 -1.86918 0.12556148 1589
-2.0278585 -1.8405421 0.12514681 1202
-3.7862291 -3.393204 0.16568077 650
-3.9110618 -3.4620051 0.16808239 1535
-3.9540629 -3.4570231 0.16858345 1414
-4.0016909 -3.4555633 0.16918817 1383
-4.0448842 -3.4497557 0.16968924 1450
-4.0369115 -3.4004004 0.16903268 988
-4.012342 -3.3378479 0.16801327 673
-4.1478763 -3.4077153 0.17058769 29
-4.0545535 -3.2896185 0.16804785 1147
-4.0520301 -3.2465525 0.16754678 1189
-4.0507002 -3.2048824 0.16708028 1223
-4.0521641 -3.165813 0.16668288 1214
-4.0533023 -3.126847 0.16628549 1219
-4.0541148 -3.0879867 0.1658881 1187
-4.0530057 -3.0480332 0.16545615 1262
-4.053165 -3.0094016 0.16505876 1235
-4.0521979 -2.9702923 0.16464409 1228
-4.0468531 -2.9283793 0.16414303 1212
-4.0484705 -2.8918731 0.16379747 1239
-4.0416207 -2.8496976 0.16327913 1255
-4.0327649 -2.8065741 0.16272624 1251
-4.0325999 -2.7698922 0.16236341 1234
-4.0346208 -2.7350011 0.16205239 1266
-4.0347033 -2.6990783 0.16170684 1246
-4.0319934 -2.6616058 0.16130945 1203
-2.9463906 -1.9194479 0.13858901 818
-2.9463353 -1.893768 0.13834712 836
-2.9604335 -1.8772594 0.13839896 838
-2.9676571 -1.8564091 0.13831256 808
-2.9994173 -1.8507603 0.13872723 1359
-3.0286562 -1.843232 0.13909008 1331
-3.0802081 -1.8487868 0.13990214 1413
-3.1276376 -1.8512322 0.1406278 1368
-3.177803 -1.8546754 0.14140531 1451
-3.217726 -1.8515906 0.14197549 1436
-3.252511 -1.8451264 0.14244199 1425
-3.2917011 -1.8407434 0.14299488 1409
-3.3318341 -1.8364307 0.14356506 1343
-3.3817031 -1.8369414 0.14432529 1427
-3.4352291 -1.8387952 0.14515463 1385
-3.4703288 -1.8302698 0.14562112 1417
-3.4593098 -1.7974228 0.14518917 1340
-3.4515803 -1.7666013 0.14482634 1502
-3.4507468 -1.7395415 0.14460173 1445
-3.3368554 -1.6565696 0.1422001 1033
-1.0529026 -0.50746161 0.098020509 245
-1.0343074 -0.49072444 0.097605839 248
-1.0911493 -0.50132877 0.098573402 351
-1.0850906 -0.49051324 0.098400623 372
-1.0835103 -0.48181859 0.098314226 379
-1.0856659 -0.46690899 0.098245114 402
-1.0931166 -0.46218169 0.098331511 468
-1.1200035 -0.44941419 0.098677069 762
-1.3653671 0.77267861 0.10035821 925
-1.3623344 0.78203773 0.10038683 919
-1.3644223 0.79440856 0.10050132 972
-1.3664094 0.8068341 0.10061581 1097
-1.3545709 0.81109226 0.10050132 1072
-1.558943 0.94656968 0.10400757 481
-1.7293431 1.064656 0.10696999 822
-1.7287151 1.0789539 0.10707016 993
-1.7229069 1.0900755 0.10708448 1051
-1.711978 1.0979269 0.10701292 1034
-1.7018559 1.1062304 0.10695568 975
-1.6908617 1.113901 0.10688412 931
-1.6690279 1.114259 0.10662652 935
-1.6547067 1.1194353 0.10649772 939
-1.642859 1.1261744 0.10641185 919
-1.6268854 1.1299578 0.10625443 855
-1.3419262 0.94422787 0.10138862 984
-0.99256307 0.70744419 0.095349282 1372
-0.98138618 0.71779972 0.095306352 1468
-0.97375029 0.72142601 0.095249109 1451
-1.0217781 0.80673939 0.096537113 1073
-1.019932 0.81549221 0.096594363 1150
-1.0133551 0.82047623 0.096565738 1161
-1.0129402 0.83048356 0.096651606 1262
-1.0101329 0.83859986 0.096694537 1314
-0.95063651 0.79908729 0.095678441 1536
-0.93658024 0.79712594 0.095506713 1490
-0.92258424 0.79502249 0.095334977 1476
-0.9704169 0.84669799 0.09633676 1301
-0.94946998 0.83873081 0.096036226 1119
-0.94058001 0.84120697 0.09596467 1131
-0.9324367 0.84427714 0.09590742 1110
-0.92576492 0.84863091 0.095878802 1080
-0.91541117 0.84953272 0.095778622 1021
-0.90726721 0.85239422 0.095721379 1011
-0.89241815 0.85930115 0.095635511 975
-0.87220687 0.87134087 0.095549643 909
0.068976298 1.2589836 0.095950358 1046
0.077738434 1.2755033 0.096193649 992
0.084622391 1.2610353 0.095993288 758
0.092138387 1.2575008 0.095950358 832
0.10001142 1.2589052 0.095978975 818
0.10824739 1.2642452 0.096064843 734
0.11636931 1.2675401 0.096122086 742
0.12795797 1.3056111 0.096680224 1014
0.16088112 1.1890435 0.095077373 810
0.17140353 1.2108036 0.095406532 955
0.15920015 1.0771886 0.093488827 1118
0.18518116 1.2016919 0.095306352 841
0.19382003 1.2084308 0.095420837 574
0.20139584 1.2082052 0.09543515 492
0.20897618 1.2079318 0.095449463 729
0.21514665 1.1997378 0.095349282 801
0.22305243 1.2013443 0.09539222 804
0.22286658 1.1606766 0.094819769 767
0.23076354 1.1632103 0.09487702 649
0.22524236 1.100063 0.09397541 980
0.32659268 1.4166943 0.098712422 405
0.34174195 1.4419048 0.099113137 345
0.34868866 1.432009 0.098998643 556
0.35843965 1.4337225 0.099055886 631
0.55324292 2.1559191 0.10976067 937
0.57384491 2.1805251 0.1101757 1144
0.58643192 2.174067 0.11013277 1090
0.58217406 2.1068208 0.10918823 738
0.58010978 2.0502944 0.10840111 498
0.61549747 2.1254487 0.10957463 735
0.64898676 2.1906564 0.11060503 1290
0.66415644 2.1923747 0.11069091 1312
0.67937154 2.1939888 0.11077677 1342
0.69493306 2.1964519 0.11087695 1368
0.70870471 2.1930978 0.11089126 1325
0.722148 2.1887081 0.11089126 1266
0.73811805 2.1918163 0.11100575 1256
0.75350326 2.1929195 0.11109161 1263
0.76926053 2.19486 0.11119179 1290
0.78540659 2.1976306 0.11130629 1318
0.79819143 2.1908913 0.11127766 1295
0.81266397 2.1887643 0.1113206 1272
0.82714045 2.1865423 0.11136353 1277
0.84413767 2.1907558 0.11150664 1333
0.85829473 2.1873963 0.11153527 1271
0.87615293 2.1932309 0.111707 1317
0.89110094 2.1915183 0.11176424 1345
0.90453106 2.1860094 0.11176424 1303
0.92025566 2.1859472 0.11185011 1338
0.92892617 2.1692302 0.11167838 1673
0.94461507 2.1689897 0.11176424 1649
0.96033591 2.168638 0.11185011 1674
0.97608793 2.1681747 0.11193598 1586
0.99311882 2.1703274 0.11206478 1662
1.009791 2.1714458 0.11217926 1668
1.0265142 2.1724408 0.11229376 1665
1.0441531 2.1751149 0.11243688 1654
1.0587949 2.1713631 0.11247981 1635
1.076093 2.1728895 0.1126086 1640
1.0921015 2.1716051 0.11269447 1623
1.1076797 2.1693156 0.11276603 1652
1.1251122 2.1704671 0.11289483 1612
1.1589007 2.2024546 0.11352453 1287
1.1700372 2.1908925 0.11345297 1256
1.1872705 2.1907043 0.11356746 1245
1.2040637 2.1895106 0.11366764 1264
1.221374 2.1890664 0.11378212 1310
1.2377387 2.1867516 0.11386799 1301
1.2546189 2.1851854 0.11396817 1294
1.2715265 2.1834941 0.11406834 1283
1.2925289 2.1885645 0.11428302 1359
1.3069609 2.182308 0.11431164 1261
1.3255178 2.1827931 0.11445475 1315
1.3425567 2.1805789 0.11455493 1278
1.3612067 2.1807816 0.11469804 1243
1.3788401 2.1791472 0.11481253 1222
1.3970444 2.1782203 0.11494133 1219
1.414744 2.1763132 0.11505582 1249
1.433023 2.1751056 0.11518462 1201
1.4530059 2.17625 0.11535636 1174
1.4708152 2.1739182 0.11547085 1129
1.4926087 2.177222 0.11568552 1254
1.5133568 2.1786976 0.11587156 1276
1.5341789 2.1799998 0.1160576 1264
1.5550735 2.1811285 0.11624365 1252
1.5736973 2.1788404 0.11637245 1256
1.5929421 2.1772122 0.11651556 1270
